# .PCD v0.7 - Point Cloud Data file format
VERSION 0.7
FIELDS x y z
SIZE 4 4 4
TYPE F F F
COUNT 1 1 1
WIDTH 1023
HEIGHT 1
VIEWPOINT 0 0 0 1 0 0 0
POINTS 1023
DATA ascii
0.2463420526 0.8112597379 0.129800327
0.2068776253 0.8112597379 0.129800327
0.3140602341 0.79086881 0.09468378052
0.2826685822 0.79086881 0.09468378052
0.151075635 0.8061544403 0.1210210159
0.09208591979 0.7706584986 0.05956793178
0.03316018927 0.7715614073 0.06659110152
-0.09039065218 0.7740445153 0.08590481833
-0.2456564124 0.7811929567 0.1415056099
0.428766239 0.7380027338 0.04786195116
0.09569767087 0.743907877 0.006056771298
-0.08309399345 0.744330595 0.03615666825
-0.3202515145 0.7553402727 0.1883274392
0.3227837874 0.7162969354 -0.002861639165
0.09196376446 0.7111096509 -0.04578100985
-0.01318947282 0.7153537928 -0.01066516111
-0.2481114962 0.7205411209 0.03225490728
-0.2595439209 0.7439642053 0.08005200245
-0.3067482633 0.7257284489 0.07517497566
-0.3324387325 0.7316231122 0.1239473367
-0.3669116523 0.7284732373 0.1415056099
0.05084962976 0.6839985374 -0.08089755629
0.0938247349 0.6791602532 -0.08323861288
0.1503147238 0.6774008771 -0.08408990618
-0.02365267849 0.6598071165 -0.09260283921
0.532731994 0.6717278137 0.01274610242
-0.1453690533 0.6598071165 -0.09260283921
-0.2010968061 0.687518631 -0.03301167374
-0.3155144053 0.6667608347 -0.03114940621
-0.3180250803 0.6934705518 0.01806649528
-0.429002171 0.6983586347 0.1317512074
0.278369889 0.6471814388 -0.06919227338
-0.4512413888 0.6445505932 0.04786195116
0.3752595305 0.6224029484 -0.08675019775
0.3211373193 0.6203399046 -0.09594760444
-0.1405943992 0.7851634202 0.119767028
0.2112689379 0.6277021553 -0.1082105808
0.1507479627 0.6287003368 -0.1117576362
0.09003285559 0.6302339131 -0.1199158637
-0.08925241568 0.6306263005 -0.1277193856
-0.1472289859 0.6255848592 -0.1277193856
-0.2064048329 0.6282155158 -0.1135057282
-0.2615835544 0.6294959047 -0.09162757339
-0.3087424156 0.6150892179 -0.08382387702
-0.3215962644 0.6386243129 -0.05855085338
-0.3768653203 0.6959516122 0.07127312748
-0.4334990976 0.6381828047 0.01487414539
-0.488268262 0.6392816636 0.07127298212
-0.5030076309 0.6468950191 0.1180948115
0.5636538043 0.6160312849 -0.02627220499
0.5054852896 0.6185788548 -0.05098382295
-0.275414811 0.6922162668 -0.01066516111
-0.495488328 0.6128961998 0.01274582334
0.568277276 0.5752137918 -0.06333963192
0.5462996078 0.5620416529 -0.08089755629
0.4976160144 0.5663470178 -0.09552950879
0.4480438732 0.6427602052 -0.03992860096
0.262759909 0.5743055595 -0.1111369015
0.1584793468 0.580345642 -0.1264187987
0.1414178347 0.5563962933 -0.1394246686
0.08652956751 0.5625712197 -0.1394246686
0.3936360003 0.644980855 -0.05456032089
-0.1378261071 0.571490558 -0.1394246686
-0.5604271971 0.5829575396 0.07796194778
-0.02160025966 0.5277171466 -0.1394246686
-0.1378261071 0.5262077201 -0.1394246686
-0.3937159967 0.5249840301 -0.06919227338
-0.2547021473 0.6758099829 -0.04187955897
-0.4731822533 0.6061744008 -0.02237044402
0.6638566984 0.5025689197 -0.06333963192
0.6122265946 0.5102071835 -0.08528703739
0.5584855646 0.5126517323 -0.1025077924
0.5007922419 0.5129427583 -0.1189404235
0.3850646687 0.5126152971 -0.1225983244
0.1489650107 0.5111134771 -0.1394246686
0.0314452969 0.5132697976 -0.1394246686
-0.08197728385 0.5307359995 -0.1394246686
0.01157654621 0.4970280186 -0.1277193856
-0.0292592069 0.5015653158 -0.1277193856
-0.08370684284 0.5015653158 -0.1277193856
-0.1472289859 0.4970280186 -0.1277193856
-0.2001642214 0.4970280186 -0.1277193856
-0.3203123579 0.5155804887 -0.1043087377
-0.3671859349 0.5119847823 -0.08675019775
-0.4351162749 0.5182613463 -0.05895015083
-0.5363835366 0.513463458 -0.02627220499
0.1867005418 0.473377837 -0.1394246686
-0.6056585954 0.4920780242 0.01713540909
0.4955458254 0.6881933856 0.02110691912
-0.6472672455 0.5078792317 0.1356529684
0.6753789518 0.4692981339 -0.06529051241
0.1489649235 0.4620571384 -0.1394246686
-0.02236961148 0.7439656443 0.03323034752
0.7130238403 0.4427504117 -0.04578100985
-0.08499610774 0.6092262199 -0.1394246686
0.6217759028 0.454275256 -0.09455395226
0.4978883638 0.45196122 -0.1238176247
0.4426200836 0.451655025 -0.1277193856
0.3814410021 0.4511727399 -0.1184783728
0.2665523116 0.4541412682 -0.1152337505
0.09186107491 0.44735065 -0.1245979769
0.03575316288 0.4524418705 -0.1174772631
-0.6479226893 0.5143100905 0.1649161757
-0.08303991848 0.4548064087 -0.1097112581
-0.2002714228 0.4510983563 -0.1152337505
-0.3709970678 0.4548701328 -0.08675019775
-0.4363887892 0.4568164873 -0.06187647156
-0.4932440421 0.4576259099 -0.05163400016
-0.6183338046 0.4560688567 0.0118454277
-0.07961936914 0.7970087723 0.1415056099
0.7503489504 0.4222784635 -0.01066516111
-0.6312845929 0.4512140143 0.06542057323
-0.6631766224 0.4595156201 0.1333118421
-0.6781568309 0.4479062271 0.1795481282
0.7008567974 0.4030677793 -0.06529051241
0.03162361361 0.6965135732 -0.05280459822
0.6666226357 0.3937635103 -0.08967660569
0.7576789678 0.4385769554 0.001040121806
0.614259667 0.3905827951 -0.1106116645
0.3826049206 0.3921156507 -0.1136730462
0.3221548561 0.3930424174 -0.09991907709
0.2654416907 0.3909638771 -0.09845577968
-0.3448661331 0.7004340398 0.05956793178
0.03080377897 0.3927015918 -0.1050404
0.3926146573 0.7004003468 -0.006763400137
-0.1445416767 0.3910241221 -0.09761968804
-0.2014057318 0.3931384545 -0.09845582951
-0.3153944884 0.3931384545 -0.09845582951
-0.4370193994 0.3955578538 -0.06333963192
-0.2054928915 0.7490750845 0.07419953542
-0.4950852786 0.3960530506 -0.05602374289
-0.6055569214 0.3944282446 -0.03156745203
-0.6302361172 0.4030339555 0.008843953837
-0.4822085495 0.6764328724 0.1239476855
-0.406488409 0.3562394526 -0.08089755629
-0.7067148688 0.3811168127 0.2351492686
-0.1360048241 0.7356148181 0.02835314631
0.7738087039 0.3521577546 -0.02237044402
0.556052673 0.3382224864 -0.1277193856
-0.1397077992 0.3409948412 -0.08089755629
0.8303527835 0.3398365894 0.03030402679
-0.5497565217 0.6121821783 0.08688025858
0.7216125053 0.3181279276 -0.08089755629
0.3258572353 0.3326436466 -0.09333455021
0.2702783776 0.3331917444 -0.08382387702
0.2093300127 0.3331917444 -0.08382387702
0.03292200285 0.3330611561 -0.08609990426
-0.02484381035 0.334909017 -0.08449918181
-0.1324000645 0.7164148282 -0.001886198922
-0.0801746606 0.3331917444 -0.08382387702
-0.1422932507 0.6870801832 -0.05456049531
-0.111134441 0.3111385613 -0.06919227338
-0.1416837387 0.3111385613 -0.06919227338
-0.1951452421 0.3111385613 -0.06919227338
-0.2409692758 0.3111385613 -0.06919227338
-0.2635054111 0.334964645 -0.08359877543
-0.3201645857 0.3331917444 -0.08382387702
-0.07895842509 0.5699811315 -0.1394246686
-0.02394499466 0.4531759756 -0.1082105808
-0.3694249706 0.337801286 -0.08323861288
-0.47398449 0.6644408065 0.08688025858
-0.4367040943 0.3344235278 -0.06260805174
-0.4956990241 0.3347286264 -0.05748699046
-0.5533145501 0.3352371952 -0.048707505
-0.6090114994 0.3358974772 -0.03742009348
-0.6425266914 0.3290653282 -0.02237044402
-0.6537894941 0.3345672673 0.01976927217
-0.6602586914 0.3421872219 0.07127321469
-0.6771595004 0.3218987175 0.1298000944
-0.6896595197 0.3109359454 0.2234439857
0.2032958753 0.2876387119 -0.08089755629
0.6749702634 0.3291091262 -0.1019674842
0.1575621063 0.2876387119 -0.08089755629
-0.05586226533 0.2876387119 -0.08089755629
-0.6425266914 0.290577951 -0.02237044402
0.7203500901 0.2764006819 -0.09260311829
-0.5500212401 0.6200082083 0.1122420537
0.6141268629 0.2824512416 -0.1193584693
-0.5927916231 0.4416704621 -0.02627220499
0.5559025784 0.2837092001 -0.1241177601
0.5304020308 0.5860827417 -0.06919227338
0.4459479515 0.2828019926 -0.1204035838
-0.1505974148 0.7477368884 0.06346946018
-0.3937159967 0.4104239822 -0.06919227338
0.3301140084 0.2797752352 -0.08577475751
0.08896139463 0.2800164098 -0.08089755629
-0.6099577173 0.5199998957 0.06346946018
0.02798283247 0.2800164098 -0.08089755629
0.8353885947 0.2520905737 -0.02237044402
0.7888765046 0.2765763046 -0.04708198445
-0.1198914257 0.7609523827 0.1063890634
-0.3681046914 0.3917170018 -0.08758628939
0.3012817751 0.2576772068 -0.06919227338
-0.03221529609 0.255131426 -0.06919227338
-0.08642794436 0.2731139665 -0.06553437247
-0.201629288 0.2713232619 -0.05748699046
0.3823487258 0.5716557535 -0.1063743349
-0.2579703997 0.2752825981 -0.06584790683
-0.4944640329 0.2736378275 -0.05456049531
-0.5509029235 0.2741899847 -0.04285477634
-0.6084588616 0.274642239 -0.03334414676
-0.6523363282 0.280247839 0.01441828569
-0.09031469028 0.7153537928 -0.01066516111
-0.6666714101 0.2775213346 0.07127321469
-0.07901998532 0.6921780286 -0.05046368118
-0.6843696106 0.2848305759 0.1245979015
-0.6950381915 0.2769331942 0.1805234522
0.8188852412 0.3239597907 0.02445138533
-0.02346761404 0.2819219853 -0.08089755629
-0.7123057223 0.2740857454 0.1883271602
0.1561724077 0.2271278583 -0.06919227338
-0.3748902239 0.2733287703 -0.06114489138
0.7750395308 0.226449047 -0.08675037218
0.7399335212 0.2239177617 -0.09792380291
0.676800134 0.2252575474 -0.1160141027
0.6161825434 0.2252575474 -0.1160141027
0.5555648657 0.2252575474 -0.1160141027
0.4398583003 0.2253557594 -0.1030765379
0.381271213 0.2268709316 -0.08640600681
-0.6512212321 0.4141736522 0.09468378052
0.3351933469 0.2363871561 -0.08256973957
0.2652429297 0.2196363528 -0.06529051241
0.03718297763 0.7414109721 0.01274596288
0.2096336495 0.2194905157 -0.06919227338
0.03124954272 0.2288380879 -0.08089755629
-0.3929842857 0.7086517474 0.129800327
0.01106304033 0.2118531731 -0.06919227338
-0.3738271699 0.2189630676 -0.05208428385
-0.4956672934 0.2208658079 -0.03310028669
-0.5505884009 0.2262178382 -0.02757279198
-0.6877337418 0.2304513601 0.1122420537
0.3938535949 0.1885487556 -0.08089755629
-0.6384505058 0.2582576082 0.001040354372
-0.5347619697 0.1905107701 -0.02237044402
-0.6625946224 0.2118345938 0.01943463617
-0.6831136154 0.2200529477 0.06123981604
0.316556482 0.2194905157 -0.06919227338
-0.7092551764 0.2195623154 0.1368233572
-0.6504971957 0.3945615735 0.03615666825
-0.2012346795 0.2202347272 -0.04968300339
-0.7347693222 0.2235817713 0.2443462766
-0.7571824039 0.1838118862 0.2585598344
0.05084962976 0.173304155 -0.08089755629
-0.6949039427 0.1705440754 0.0829784976
0.2664203245 0.5129992328 -0.1182088433
0.8281614878 0.143419324 -0.05748699046
0.812856431 0.143419324 -0.05748699046
-0.6391350495 0.3505690576 0.01567224872
0.7316955526 0.1647154854 -0.113087782
0.676800134 0.1646399351 -0.1160141027
-0.5898989663 0.5610841711 0.07127321469
0.6197648749 0.1648135843 -0.1101614613
0.4495455523 0.1701042857 -0.08557971597
0.4261766624 0.1524028143 -0.06451016021
0.2096336495 0.1660291476 -0.06919227338
0.3291276084 0.6481522749 -0.06041331119
0.1499397824 0.165681852 -0.08089755629
0.02868756805 0.164266685 -0.06919227338
-0.02524460009 0.1649159196 -0.06092967969
-0.1426190128 0.1669066797 -0.0392780749
0.8153603536 0.2201139527 -0.05358476436
-0.2027553356 0.1669805265 -0.03658400185
-0.2583201699 0.168502904 -0.03719713571
-0.6086755011 0.1627329288 0.0001397154283
-0.6716390339 0.1619294383 0.01609026962
0.3273309483 0.1663784232 -0.05675523586
-0.7180500228 0.163939635 0.125898566
0.7751106088 0.1272982001 -0.09260283921
-0.7361372411 0.1576865419 0.2681368841
-0.4116023625 0.121233502 -0.02237044402
-0.0246191068 0.5639434256 -0.1394246686
-0.7273029546 0.1094710078 0.1649161757
-0.3136458823 0.2213728005 -0.05642281041
0.8393680909 0.1004901529 -0.03212496273
0.7975562082 0.1018778788 -0.05748689079
0.7289132828 0.1077801887 -0.1000520996
0.6732459184 0.1058198265 -0.1133128836
0.4987699055 0.2238909492 -0.1121123418
0.6197648749 0.1041358322 -0.1101614613
0.495361359 0.1045331441 -0.08967651848
0.3245179861 0.1104056193 -0.02471150061
0.2693955132 0.1054073055 -0.04383024565
0.03531450693 0.8018167415 0.118095044
0.2138689103 0.1050817893 -0.06138875144
0.1484153292 0.1062278733 -0.08089755629
0.05084962976 0.09708110855 -0.08089755629
0.02868756805 0.1066929027 -0.06919227338
-0.198735946 0.7192442997 0.0215250646
-0.08496764917 0.1057535365 -0.0506012016
-0.2677022806 0.08292806047 -0.01066516111
-0.4941830276 0.1062926055 0.001040121806
0.3290730354 0.5133266958 -0.1145509424
-0.08344188322 0.1665388243 -0.05163404376
-0.5482757736 0.1062926055 0.001040121806
0.5613606179 0.3937763913 -0.1151136964
-0.6100961522 0.1062926055 0.001040121806
-0.6713515807 0.1063266237 0.002503369383
0.5020715995 0.389701463 -0.1269390335
-0.7071987806 0.1064891901 0.009819432841
-0.7183671121 0.1024026091 0.06932210164
0.4043300568 0.06735117932 -0.02237044402
-0.3911024192 0.06750303769 -0.01066516111
-0.4271650444 0.06757896416 -0.004812519651
0.4761521574 0.05924323384 -0.05748699046
0.5021053612 0.1637593957 -0.1001773383
-0.2576529407 0.06350244295 -0.02237044402
-0.4962746687 0.1905107701 -0.02237044402
0.9185107028 0.04529548618 0.08883113906
0.8798379013 0.02165956111 0.07127321469
0.2087008717 0.3929536777 -0.1097112581
0.751637599 0.02863374426 -0.05748699046
0.09196376446 -0.3699947369 -0.04578100985
-0.3448272364 -0.5032225762 -0.01066516111
-0.3567303167 -0.6473810464 0.07712585615
0.3814498967 0.7356148181 0.02835314631
-0.4347842712 0.2205859623 -0.04037867892
-0.2584755124 -0.3692896147 -0.05748699046
-0.4966280202 -0.07846592386 -0.05968173101
-0.2057225389 0.7790860477 0.1251182138
0.2598220057 0.2707697801 -0.06919227338
-0.5304304847 -0.4090818185 0.0829784976
0.7458194936 0.390142978 -0.03017396597
0.6074750081 -0.6415728505 0.1736953123
-0.5900371106 -0.4174992749 0.2117380051
-0.549234224 -0.07535345553 -0.04410892625
0.7199263431 -0.4175897576 -0.02237044402
0.2058362332 -0.5940044125 -0.02887337898
0.3754729598 -0.4176817167 -0.06919227338
-0.4345566046 0.5731213404 -0.0457813587
-0.3216897758 0.03665300303 -0.01066516111
-0.1404062649 -0.4224632407 -0.04109889669
0.03618519941 -0.7728267271 0.1742805416
-0.3139854459 -0.370684166 -0.05679840337
0.5599976477 -0.426895749 -0.1086983009
-0.2574119994 0.5733451532 -0.1206962159
-0.5096382059 -0.3341773417 0.001040121806
-0.3199472645 -0.4223669341 -0.04758192995
-0.3954767253 -0.6010247779 0.1239476855
-0.7088673695 0.1586438022 0.07712585615
0.2708051096 -0.4251438468 -0.05838739684
-0.2214272722 -0.07132212009 -0.01066516111
-0.3654175098 -0.4676233098 -0.02237044402
-0.02487783655 -0.7350615875 0.1239476855
-0.4935142756 -0.4819701779 0.1431777931
-0.5456265611 -0.4655570679 0.1906684958
0.3243439652 -0.426697345 -0.0650118152
0.7169103682 -0.5002382375 0.04786195116
-0.02080777914 0.6921780286 -0.05046368118
0.4470610075 -0.4793475303 -0.1034725288
0.3415858822 0.08292806047 -0.01066516111
0.7173012885 0.04818258428 -0.09260297875
-0.6725047602 0.04597697581 -0.004422343554
0.3835336267 -0.4818417715 -0.08557966946
-0.5656867453 -0.4303113862 0.1883274392
-0.01133388628 -0.6485139774 -0.02237044402
0.5029988404 0.2869082975 -0.1253783291
0.2667102007 -0.4777671471 -0.05982804705
-0.2648372642 0.1073780484 -0.02237044402
0.1471002378 -0.4228562308 -0.05748699046
0.09478551767 -0.6728978105 -0.01066516111
0.03471130322 -0.4779706704 -0.03773362785
-0.5455116502 -0.3541814309 0.02679244192
0.6572208907 -0.519638325 0.001040121806
0.6108557048 -0.5350934306 0.001040121806
-0.139935525 0.2202347272 -0.04968300339
0.5615977226 -0.5212209052 -0.05280473776
0.09446330319 -0.7011141478 0.03381561167
0.1517426999 0.3921292558 -0.113087782
-0.3748071383 -0.126696146 -0.04684538019
0.4988384253 -0.5162666875 -0.08382387702
0.09929765411 0.5923113117 -0.1277193856
-0.4772600159 -0.5319977055 0.1941800807
0.1040398158 -0.7458914772 0.0829784976
-0.6689145473 -0.1347253616 0.07210920666
-0.4886146401 -0.539453096 0.2351492686
0.2657754479 -0.5792367093 -0.02237044402
-0.1982031662 0.571490558 -0.1394246686
0.7442475795 0.2958638762 -0.06919227338
-0.6576769464 -0.1078805725 0.02445126905
-0.1401645299 -0.3697415951 -0.05017075258
-0.6309768207 -0.269080932 0.1063890634
0.6625551423 -0.4987213617 -0.002861639165
0.6728879947 -0.07789239798 -0.110161345
-0.4198855447 -0.5392863952 0.07127304027
-0.6645006617 0.4071422496 0.129800327
-0.3911024192 0.09064056369 -0.01066516111
0.03723413635 -0.8164494576 0.2351492686
-0.1408721267 -0.652252964 0.01274610242
-0.5910165044 -0.07114398674 -0.02822308548
-0.4456870424 -0.5587088581 0.1805236847
-0.406488409 0.493440934 -0.08089755629
0.5595583158 0.4530931336 -0.1094298811
0.3844905818 -0.5983418618 0.01534704383
-0.6365727092 0.4704938142 0.1122420537
0.3277527069 -0.5978922692 0.01079498937
-0.46529024 -0.5705151328 0.2234439857
0.6149002613 -0.4669693922 -0.08089755629
0.7105721287 -0.07801616674 -0.09845582951
0.3223110221 -0.5444433529 -0.05497841654
0.5030902854 -0.6605169813 0.1649161757
0.3276662795 -0.2471723316 -0.04929287381
0.9488119978 0.02196782652 0.129800327
-0.1998530916 -0.4236015542 -0.04675650824
-0.08451093131 0.3935526692 -0.09260283921
0.2685502103 -0.5358414628 -0.05330623327
-0.695550709 -0.1445456493 0.1649161757
-0.2576014128 -0.4766134362 -0.03563643133
-0.718183234 -0.01560918849 0.01544710688
0.1484153292 0.04524943846 -0.08089755629
-0.138891891 -0.5385500425 -0.02237044402
-0.369232685 -0.5428067518 0.01820842824
0.1537750361 0.3314466577 -0.08359877543
0.3839708492 0.1630063316 -0.05999511587
-0.3747540181 -0.07246501534 -0.03407579036
-0.07740792744 -0.7654947583 0.179548477
-0.1987390217 -0.6021829657 -0.008324104525
0.4437926963 -0.5198301702 -0.08675019775
-0.6469989369 0.4399574136 0.07963413106
-0.4428699695 -0.5910885852 0.2292966271
-0.3757864762 -0.3702163439 -0.04991265554
-0.4366711826 0.6721202253 0.07127293561
0.33287512 -0.4822140109 -0.08089755629
0.08896139463 0.226660286 -0.08089755629
-0.6433057586 -0.2861258519 0.1356529684
0.684711334 -0.6021078836 0.1766218075
0.4927225772 -0.5422786974 -0.04870767943
-0.702719907 -0.1689580443 0.1883274392
0.6025222229 -0.6083246199 0.118095044
-0.3757781598 0.6177230504 -0.04578132699
-0.6595534755 -0.2950787568 0.1930094129
0.33287512 -0.4517247735 -0.08089755629
0.2610036573 -0.6042559564 -0.002861639165
0.4392602016 -0.5543677798 -0.04187924888
0.09196376446 -0.4773384086 -0.04578100985
0.2667282013 0.1678344496 -0.05982804705
0.3886230386 -0.3077857499 -0.06333963192
0.1499397824 0.2037933743 -0.08089755629
-0.5910165044 -0.1634234769 -0.02822308548
-0.2638348918 -0.7178270343 0.1234153735
-0.3879388811 0.5759251115 -0.05602374289
-0.6840692128 -0.2441466369 0.2819710979
0.3379158151 -0.7380006848 0.1824746233
0.3877435776 0.2801168929 -0.1009641543
0.7836384869 -0.1864185635 -0.03114940621
0.372436004 0.09064056369 -0.01066516111
-0.08238988513 -0.7364431825 0.1356529684
-0.5607777406 0.2063281991 -0.01066516111
0.09423333314 -0.1861116935 -0.04139152876
0.6753999884 -0.1322675977 -0.1149499861
-0.09714506857 -0.7426605239 0.1883274392
0.7385588971 -0.4188051915 -0.004812519651
0.456226943 -0.730778985 0.2234439857
0.6783555359 0.04353439528 -0.1013823247
0.3346005858 -0.7983187302 0.2507563125
0.5031174084 0.3382224864 -0.1277193856
-0.7188715133 0.0428247735 0.01364624045
-0.2588364375 0.2186268242 -0.05163400016
-0.08423727108 -0.4258737029 -0.03407572694
-0.2026669052 -0.480255458 -0.0313745078
-0.6712937306 -0.01890591488 -0.00130084175
0.2107338668 0.4497514287 -0.1255911524
0.01955873704 -0.7501265925 0.118095044
0.2088166897 0.5749459654 -0.1223169474
-0.08528995497 -0.07095683531 -0.04758203728
-0.3160174457 0.273080045 -0.06626595265
-0.4746250932 -0.4735027255 0.08531955419
0.612769491 -0.5166661743 -0.03407572694
0.03349566583 -0.701381449 0.03615666825
0.2657656801 -0.8094089631 0.2117380051
-0.3774218945 -0.4246219742 -0.03212484645
-0.02420281353 0.04388511105 -0.06333963192
0.3777397314 -0.7534218648 0.2117380051
0.5614113275 -0.4719504217 -0.1009641543
0.6186213185 -0.4898172063 -0.04968323596
-0.1404676907 0.4527317477 -0.1138193622
0.33287512 -0.5203255142 -0.08089755629
-0.3191312438 0.1652648488 -0.0426596941
-0.02487295266 -0.4244768965 -0.03407572694
0.4959258716 -0.7660792503 0.288659831
-0.6252830452 0.5203967836 0.1251182138
0.4445282301 -0.4276098141 -0.09845582951
-0.6945794549 -0.2023673341 0.2390510296
0.4395873639 0.6153977967 -0.08089755629
-0.02560880625 -0.3706154335 -0.0355388873
-0.5115158281 -0.4956496944 0.1883274392
0.03426298851 0.5953361823 -0.1277193856
0.08896139463 0.165681852 -0.08089755629
-0.2578577006 -0.6518877432 0.03355549427
0.6003551723 0.5684195303 -0.05456049531
-0.3135178547 -0.1860192975 -0.04383024565
-0.3781484514 0.1682652039 -0.03889559035
0.7366100516 -0.2692991262 -0.06919227338
-0.7424716115 0.03098023008 0.2995290223
0.2146683561 -0.6274235416 -0.002861639165
-0.7330074224 0.06293748046 0.2585598344
0.7255497326 -0.2380905473 -0.08675031403
-0.0886702156 -0.7948845433 0.2234439857
-0.3955914095 -0.5441213947 0.05956758293
0.6593520099 -0.4620035906 -0.04578100985
0.08541214568 -0.783021537 0.1922289676
-0.5578544723 0.02116633208 -0.02237044402
0.2157551374 0.5121523389 -0.1277193856
0.2146423959 -0.3086554757 -0.04578100985
0.4466412673 -0.7875086959 0.2936763809
0.3253876719 0.4532168536 -0.1076531864
0.1510364186 -0.7458914772 0.0829784976
0.02821080536 0.5639434256 -0.1394246686
0.2096336495 0.2576772068 -0.06919227338
-0.02702104918 -0.7053910116 0.07127321469
-0.2577224489 -0.6809692195 0.0624942525
-0.3346277606 -0.07120336331 -0.02237044402
0.5613099962 0.1649136604 -0.1065035604
-0.4622446128 -0.4929029874 0.1532108928
0.1510364186 -0.7302258848 0.0829784976
-0.3832993042 -0.5967132537 0.07907662035
0.09196376446 -0.3086554757 -0.04578100985
0.7113137819 -0.4655455428 0.001040121806
-0.1960479328 -0.7080640461 0.09468378052
0.268109888 -0.6302264352 0.02445138533
-0.1442362443 -0.6801297839 0.05488539999
0.2652491509 0.7404377296 0.004942115344
-0.1369855116 -0.7665647549 0.1883274392
0.2262868919 0.7691534764 0.04786195116
0.1497412581 -0.7687657747 0.1415056099
-0.4916669624 0.5135603333 -0.05208423018
-0.08104424331 -0.01728386817 -0.05456049531
0.09472002125 -0.8330650315 0.2702651173
-0.02456465727 -0.8109109329 0.2234439857
0.2659492593 0.6855592606 -0.0500377935
0.1963429056 -0.7473030951 0.09468378052
0.326109366 -0.7653404544 0.2000327221
0.1478446818 -0.8079070805 0.2000327221
0.423479082 -0.3609471936 -0.06919227338
-0.4985559239 -0.4274783352 0.06542022438
0.5603526104 -0.7147188704 0.2515366647
-0.3658361505 0.5722047248 -0.08089755629
-0.6860703421 -0.2427233162 0.2439282308
-0.6994548102 0.3973637476 0.1971064014
0.08896139463 0.1047034125 -0.08089755629
-0.2579851759 -0.6039300369 -0.006275680015
-0.02439607594 0.3934491155 -0.09406608678
-0.4453120005 -0.4883096258 0.06701662132
0.1558256517 -0.7009359469 0.03225490728
-0.1930639212 0.6611316093 -0.08089755629
0.03062457954 -0.3699947369 -0.04578100985
-0.5052476608 0.05824802729 -0.01066516111
0.7562888041 -0.5504055516 0.1766221563
-0.4079308129 -0.6311071919 0.1883270904
-0.205869934 -0.5316523077 -0.02237044402
-0.6696959568 -0.07054052477 0.02110686928
0.1515899956 0.2637870744 -0.06919227338
0.3882762701 0.112326207 -0.02738699384
-0.08397092161 -0.7067275223 0.0829784976
0.03359058186 -0.4240717374 -0.03992836839
-0.7061560707 0.1944348211 0.09468378052
0.05781370447 -0.8094089631 0.2117380051
-0.3906228098 -0.6560257961 0.1727199302
-0.1887781355 -0.7625807018 0.1883274392
-0.5515015377 0.3968495249 -0.04431784949
0.4014761223 -0.2459225786 -0.08089755629
-0.3610539276 -0.5977988394 0.0328123017
-0.08204141758 -0.4789519011 -0.02529676475
-0.554646332 -0.1874555088 -0.03715613799
0.2037265585 -0.8079070805 0.2000327221
0.03582499776 -0.01509646107 -0.05915917374
0.2420458014 -0.8315331479 0.2585598344
-0.01658412347 -0.7647813837 0.1736956612
0.1790844682 0.08201842553 -0.06919227338
0.09486854376 -0.8086580218 0.2058853636
-0.02456465727 -0.7948845433 0.2234439857
-0.2587664584 0.5125151899 -0.1236225366
0.442448584 0.3360486685 -0.1250181665
-0.3563676881 -0.6896862609 0.1415056099
0.3798679435 -0.2465419602 -0.06529051241
0.4455711324 -0.1325400391 -0.09170259384
0.09311267719 -0.6002365207 -0.04358626931
0.6120853107 -0.7072752874 0.2644124759
-0.7368327564 0.1034409403 0.2702651173
-0.5472252145 -0.4217387327 0.1356529684
0.7310367802 -0.3518841084 -0.04968300339
0.1790844682 0.02091971756 -0.06919227338
0.4497309584 -0.3706027945 -0.08309229684
0.09240532022 0.8002666305 0.1063890634
-0.7571824039 0.06293748046 0.2585598344
0.4546655442 -0.08033313033 -0.08675024759
0.1515518431 -0.5970615832 -0.03700204767
0.384631106 0.3316683705 -0.1101614264
0.2684591295 -0.7772758069 0.1941800807
-0.4231917482 -0.4758515741 0.01593826202
0.03152769174 -0.7948845433 0.2234439857
-0.2037706235 0.1058385538 -0.02237044402
-0.4255230864 -0.4119800895 -0.0240426273
0.2125320936 -0.1298011204 -0.05298469023
0.3296568125 -0.3680556675 -0.05542122918
0.09435186085 -0.7628028097 0.148194343
-0.0262343363 0.5953361823 -0.1277193856
-0.7209622733 0.1243186799 0.118095044
-0.568347243 -0.4439247255 0.2468545515
-0.320898054 0.5760202132 -0.09377364658
-0.0339747747 -0.6639058904 0.001040354372
0.2065628588 0.745490588 0.008063431095
-0.3154993939 -0.4784941239 -0.03114940621
0.09173515543 -0.0177350578 -0.064372451
-0.5015161615 0.5905064623 0.005722514051
0.208319157 -0.4764227887 -0.05748699046
-0.4124004711 -0.5966761267 0.1337020879
-0.3234851872 -0.1270546236 -0.02875514379
0.3245608248 0.7433573932 0.02835314631
-0.4460976378 -0.4242044636 -0.0009106423964
0.01955873704 -0.734370779 0.118095044
0.7809841812 0.3970922993 -0.002861406599
-0.02420574797 0.1064864812 -0.05886404153
-0.2599897501 -0.5649226892 -0.01066516111
0.1557007637 -0.6619747454 -0.004812519651
0.208319157 -0.4228562308 -0.05748699046
-0.1982031662 0.5262077201 -0.1394246686
-0.5683592347 0.5180552637 0.00396661696
0.1471002378 -0.5376417951 -0.05748699046
-0.1936621625 -0.5618376857 -0.01066516111
0.1478446818 -0.7919407802 0.2000327221
-0.5533725095 0.4602263336 -0.03407572694
0.6688202979 -0.6299360619 0.1766218075
-0.7229794932 0.1574614762 0.1766218075
-0.1960731517 -0.07120336331 -0.02237044402
0.5608593486 -0.07793085593 -0.1072351405
0.2037265585 -0.7919407802 0.2000327221
-0.6848046913 0.343517872 0.1766221563
0.7174168971 -0.5811367596 0.1649161757
-0.2214272722 -0.1021721475 -0.01066516111
0.5044224239 -0.4803795152 -0.1043085873
-0.707073195 0.3403366501 0.1766221563
-0.3246642668 -0.5473621811 -0.005787959894
0.4286839107 -0.8051872784 0.3053816638
0.2875985177 0.7153537928 -0.01066516111
-0.2589507646 0.4541676684 -0.1125713725
0.1992314343 -0.7692463725 0.1454073708
-0.08247094895 0.219943053 -0.05748699046
-0.5510984687 0.1664648076 -0.002081286971
-0.5354459465 -0.4859315796 0.2351492686
-0.4924301523 0.5610769481 -0.03407577677
-0.08247094895 0.04393848905 -0.05748699046
-0.1597272029 -0.5572101805 -0.01066516111
-0.5684902711 -0.2487098121 -0.01066516111
0.4296780608 -0.07089730209 -0.05046347187
-0.1449838912 -0.4787230125 -0.02822308548
0.03012876529 -0.1279963247 -0.0424366433
0.3944021601 -0.713465702 0.1766218075
0.4465746371 -0.6096511622 0.0517639447
-0.7136235695 -0.1137188152 0.1251180743
0.518165189 -0.7207865294 0.24100191
-0.2140682712 -0.7278894897 0.1298000944
0.03752315783 -0.6738663573 -0.001886198922
-0.1254175444 -0.7080640461 0.09468378052
0.03062457954 -0.6000169311 -0.04578100985
0.5696269732 -0.7375367591 0.2819710979
0.5564470353 0.1042947532 -0.1019676237
-0.2653504271 -0.5330518493 -0.02237044402
0.1349182526 -0.6485139774 -0.02237044402
0.2136801829 0.6950289378 -0.05228440994
-0.5558559565 -0.3128281645 0.006502819733
-0.08169227413 -0.6021151767 -0.02456518457
0.4014761223 -0.1849441445 -0.08089755629
-0.6034805591 0.5641827174 0.1164224621
-0.6780280358 0.392914138 0.177792266
-0.3698160952 0.1080378321 -0.02237044402
-0.319323416 -0.6616776531 0.06444490042
0.3887797591 -0.5536571669 -0.04968300339
-0.08061105994 -0.5407493212 -0.02237044402
0.2977657249 -0.6314276316 0.03615666825
-0.6485600948 -0.246101758 0.121996805
0.1867005418 0.5111134771 -0.1394246686
-0.4338512499 0.2735737401 -0.05602374289
-0.2601201245 -0.4248478447 -0.04897355002
-0.6460242525 -0.3455158316 0.2117380051
-0.406488409 0.4553294308 -0.08089755629
-0.08246427721 -0.3702297613 -0.04187924888
-0.1932850915 -0.6544339849 0.03323034752
0.4264233684 -0.001909540631 -0.01066516111
-0.5530652102 0.05207802036 -0.01066516111
0.03658667241 -0.6472676922 -0.03407572694
-0.3864914586 -0.4914672533 -2.386796803e-05
-0.701606555 0.1455347341 0.02445138533
-0.3197574819 -0.598519652 0.00605697064
-0.3209795336 0.1057528569 -0.02627220499
0.5025150332 -0.2436379872 -0.0944037593
0.1496760234 -0.1321731888 -0.05260949854
-0.1467502123 -0.1249065143 -0.03188098639
-0.08506958408 -0.6598178368 0.0107947568
0.1534047261 -0.8315331479 0.2585598344
0.5025245684 -0.4263817907 -0.1160141027
-0.2049088745 -0.3080706356 -0.05748699046
0.4435183701 -0.7590085088 0.2585598344
0.6170781263 -0.1839600031 -0.1145509424
-0.3119893142 -0.6383994683 0.02835314631
-0.7571824039 0.199928475 0.2585598344
0.05084962976 0.05134728142 -0.08089755629
-0.7317524669 -0.1250247328 0.2546580734
-0.6332739921 -0.3200593311 0.1824744489
0.5036326585 -0.1843491865 -0.1013823247
0.9754513016 -0.1179144758 0.1859863826
0.238782318 -0.7053910116 0.07127321469
0.4443892243 0.1038556571 -0.05216609019
0.009154312444 -0.7047227694 0.06542057323
0.3838572656 -0.6358320696 0.07907673663
0.4425394995 -0.5817364639 0.00396661696
0.204464481 -0.660435995 0.0166475533
-0.4204347983 -0.6015114598 0.1883273396
0.2758310815 0.0441622778 -0.03212484645
0.2652848498 -0.6648557339 0.05761658616
0.2098127254 -0.8315331479 0.2585598344
0.3150822457 -0.6540702062 0.07361427127
0.153303211 0.7111096509 -0.04578100985
0.09089048914 0.3936529011 -0.1105057343
-0.6644057951 -0.2484941034 0.1844253294
-0.08189868547 -0.2459294646 -0.03587653969
0.3770758217 -0.1832944453 -0.06250344061
0.2858068287 -0.7120736305 0.129800327
0.6847674115 -0.4239567189 -0.04187948145
0.4458678688 -0.6651315354 0.1337020879
0.4284882063 -0.6368330704 0.08883113906
-0.3680670406 0.6730522847 0.02445121091
-0.4321003523 0.6087717044 -0.02705255719
0.3632560398 -0.6975942123 0.1415056099
0.09036353547 -0.6472676922 -0.03407572694
0.4264233684 0.03665300303 -0.01066516111
0.3789867119 -0.6646254305 0.120696218
-0.2021457062 -0.2470726551 -0.05163400016
-0.3709231903 -0.6552355846 0.129800327
-0.4425411269 -0.5338947763 0.1321413835
0.4431002395 -0.1847375872 -0.08792072604
0.9785470235 -0.07334097891 0.1883274392
-0.4916561857 0.03502178788 -0.02237044402
0.6233097923 -0.6759329612 0.2351492686
0.09196376446 -0.5386776698 -0.04578100985
0.865168622 0.05256518087 0.03615666825
0.4382608652 -0.7058745476 0.1849830727
0.6731762022 -0.66018431 0.2380755893
0.5788885681 -0.6083246199 0.118095044
-0.1537368906 -0.6137445078 -0.007320794561
0.09196376446 -0.4236665782 -0.04578100985
0.9761759543 -0.02288744641 0.1805236847
-0.7045693305 -0.1086362378 0.07127321469
-0.627944101 -0.3087850804 0.1141930505
0.4977124276 -0.7054329171 0.2117380051
-0.02451065106 -0.6012481122 -0.03334414676
-0.03199313735 0.772915814 0.07712585615
0.9026463536 -0.1508690953 0.09468378052
-0.1423740878 -0.01730211708 -0.0387578401
-0.4321033698 0.1765073805 -0.02705255719
0.5608593486 -0.1310501981 -0.1072351405
0.2701465272 -0.3710461049 -0.05358499693
0.3882087396 -0.3675211038 -0.06138875144
0.2083242444 -0.01729051177 -0.05748687418
0.4014761223 -0.3907463857 -0.08089755629
-0.6095274846 -0.3942249346 0.2234439857
0.500470839 -0.3651964887 -0.1029316046
-0.6180608919 -0.2488345191 0.07127321469
-0.1423740878 0.04410930124 -0.0387578401
0.1501942024 -0.3696308955 -0.05163400016
0.5617587252 -0.3663754819 -0.1057719802
-0.7175424579 0.3331956283 0.2308928021
-0.311535258 -0.5253543703 -0.02237044402
0.3244303988 -0.124710426 -0.04139152876
0.6771335465 -0.3038298321 -0.1011162797
-0.2022311291 -0.1266251856 -0.02237044402
0.6203349816 -0.3649434111 -0.1007069796
0.665419054 -0.3629040714 -0.08792072604
0.5060947483 0.6555953958 0.006893112113
0.6956426661 -0.3767119682 -0.06138875144
0.2069379181 -0.7136843468 0.07517497566
-0.6083694007 -0.3701533889 0.1851347722
-0.5974838374 -0.3567522855 0.1271989979
0.153303211 -0.1859769587 -0.04578100985
-0.5666284634 -0.3884639532 0.129800327
-0.5604933559 -0.3693478562 0.07322392075
0.1471002378 -0.4764227887 -0.05748699046
0.6789663997 -0.01723092557 -0.1004068263
0.3974474035 -0.7729547896 0.2538777213
-0.521330407 -0.3834230837 0.04786195116
0.383594466 -0.8022436025 0.2819710979
-0.5021778061 -0.3672631023 0.01157536482
0.4472096587 -0.3069010208 -0.08089755629
0.5504603311 -0.7564766928 0.3053816638
0.7841744063 -0.3738952297 0.01859839503
-0.2582460527 0.3952527869 -0.09929197099
-0.6255539614 -0.3701853611 0.2234439857
0.5656476514 -0.4990597017 -0.06138875144
-0.480879696 -0.3560099322 -0.02237044402
0.423479082 -0.3074858282 -0.06919227338
0.03349299132 0.6338092785 -0.1218667442
0.7664186845 -0.3476524887 -0.03407572694
0.6682565577 0.4400848121 -0.08089755629
-0.5898989663 -0.3379568601 0.07127321469
-0.5883160635 -0.3360671009 0.03615666825
-0.2035235293 -0.3694734146 -0.05456049531
-0.4916553925 -0.3080699118 -0.03345969614
0.6161825434 -0.07783051361 -0.1160141027
-0.1466004844 -0.72128629 0.1214390119
-0.4335396949 -0.3081831122 -0.0552921191
0.3196878388 0.5749679295 -0.1043088198
-0.3765043596 -0.3077164066 -0.06480279229
0.1796230912 -0.6266227585 -0.01066516111
-0.3160117987 -0.3076263899 -0.06626595265
-0.08451093131 0.6598071165 -0.09260283921
0.6322330617 0.5249840301 -0.06919227338
0.7664186845 -0.3322876043 -0.03407572694
-0.5379950451 -0.2479355888 -0.03017396597
-0.2593714441 -0.3079681557 -0.05943787095
-0.406488409 0.3791063807 -0.08089755629
-0.08438643578 -0.3086554757 -0.04578100985
0.2683141391 -0.1246377042 -0.04578100985
-0.02888630901 -0.3088410457 -0.04212310894
-0.1441646954 0.1038891175 -0.03537631393
0.03062457954 -0.3086554757 -0.04578100985
-0.622092477 -0.01733944327 -0.009689720865
0.561552473 -0.3042907738 -0.09910616177
0.153303211 -0.3086554757 -0.04578100985
-0.7325993562 -0.1389979346 0.2819710979
0.3267664581 0.6796138704 -0.03992864747
0.327015955 -0.3084215396 -0.0504634021
0.3786198777 0.6821189917 -0.03147463048
0.4986187763 -0.3080683517 -0.09130232974
0.2687100829 0.6209428332 -0.1004068263
0.6228915571 -0.423642246 -0.09026199193
0.671666267 -0.2446837918 -0.1121123418
-0.2028270863 -0.1843057744 -0.02738699384
-0.01939920494 -0.5406817643 -0.0231020242
0.6193292714 -0.3054089973 -0.1108930415
0.737395311 -0.3078720096 -0.06187638435
-0.02125189894 -0.01728048871 -0.05748699046
-0.3808448601 0.6465808841 -0.004812519651
-0.6630589032 -0.310903492 0.24100191
-0.6052070538 -0.308932699 0.07712568172
-0.59394893 -0.2980927041 0.02211032875
0.3855197642 0.7607764756 0.06346946018
0.7892037639 -0.2482452868 -0.02237044402
-0.5347619697 -0.302127615 -0.02237044402
0.1036821292 0.473377837 -0.1394246686
-0.5969236536 -0.2497313658 0.01469675034
-0.3192327589 0.06735117932 -0.02237044402
-0.4944753051 -0.2469677919 -0.05456049531
-0.1422707064 -0.3082168456 -0.05456049531
-0.376164635 -0.2465818925 -0.0640712121
-0.5910165044 -0.1249736936 -0.02822308548
-0.2575720078 -0.2469215589 -0.0555359937
0.1513946866 -0.01676563169 -0.06763156899
-0.1392134219 -0.2488716418 -0.04500070417
0.2146423959 -0.1859769587 -0.04578100985
-0.5535471278 -0.01730255863 -0.03056414206
-0.02523523246 -0.2477488882 -0.03480730712
0.153303211 -0.2473162144 -0.04578100985
0.7249521075 -0.1890863674 -0.09494403533
0.2109182573 0.6611316093 -0.08089755629
0.2146423959 -0.2473162144 -0.04578100985
0.4431002395 -0.2456438569 -0.08792072604
0.08858786445 0.5111134771 -0.1394246686
-0.2625605936 0.03793842114 -0.01066516111
-0.0271237271 0.2194905157 -0.06919227338
-0.7175752101 0.2215989761 0.19125376
0.5618396146 -0.246539312 -0.09568336042
0.2652250803 0.7691534764 0.04786195116
0.4454459358 0.7210126922 0.03615666825
0.2130615862 -0.369807176 -0.048707505
0.6197648749 -0.2447612136 -0.1101614613
0.3304627703 0.7716617305 0.06737145372
-0.6181165619 0.2093961189 -0.003216344708
-0.7445730785 -0.07440978171 0.2936763809
-0.6433735226 -0.2371950553 0.09468378052
0.3518795472 0.7924037461 0.1063890634
-0.0262343363 0.6255848592 -0.1277193856
-0.6820389459 -0.194455927 0.1883272299
0.3119603951 -0.03271599061 -0.02237044402
0.09578802279 0.332852723 -0.08967651848
-0.665352041 -0.1934398576 0.1400424495
0.03396415564 -0.5392575061 -0.03919678821
-0.651271837 -0.1839417389 0.08444165797
0.3907240347 0.04288816608 -0.002861639165
0.6732918651 0.2786228691 -0.1095110903
-0.6301986081 -0.2032579437 0.06424976586
0.2072132414 -0.07697891402 -0.05670659176
-0.6134156131 -0.1862456382 0.009991589875
-0.4960105682 -0.1856139744 -0.05821857065
0.1463211706 -0.07848838068 -0.05895015083
-0.1329538189 -0.5977106417 -0.02237044402
-0.4379615645 -0.1853950497 -0.06553437247
0.1552578126 0.4403117711 -0.1277193856
-0.3739029591 -0.1855858797 -0.05895015083
-0.2570984389 -0.1886059704 -0.03073136039
-0.3130331397 -0.2467560922 -0.05968173101
-0.08418133431 -0.1864615946 -0.02968624584
-0.02450690094 -0.1863455545 -0.03334414676
0.03658667241 -0.1863212182 -0.03407572694
0.3862313001 -0.4381740158 -0.08089755629
0.2726096345 -0.186206465 -0.03797748791
0.56352364 -0.1843042708 -0.1028455722
0.6757733606 -0.1824218494 -0.1152337505
-0.7148672166 -0.1799861195 0.2421724383
0.9555573441 -0.2001117957 0.1649161757
-0.7164226999 -0.1875280999 0.2819710979
0.4482719043 0.6673127067 -0.02627220499
-0.3937159967 0.3264132392 -0.06919227338
0.9026463536 -0.174412529 0.09468378052
-0.7201380824 -0.1324064635 0.1930094129
0.03547159804 -0.2476851851 -0.03627046748
-0.6929153284 -0.1437834685 0.129800327
-0.1449914023 -0.1864783148 -0.02822308548
-0.620609424 -0.1278462449 0.005220829168
0.4443360942 0.5124233292 -0.1247930649
-0.5550034033 -0.1278852876 -0.04745349214
-0.6034486842 0.2335201148 -0.02471150061
-0.4373774276 0.1523406385 -0.01066516111
-0.02779377902 -0.1247647344 -0.03992836839
0.5439291782 0.6568898658 0.01859874388
0.3813448544 -0.519258438 -0.08349873027
-0.4977684697 -0.1319714895 -0.06236419168
-0.7246334367 0.2776534171 0.2468545515
0.2683141391 -0.3086554757 -0.04578100985
0.7142524868 -0.01723993747 -0.09260283921
-0.4374178795 -0.1319241342 -0.06431507216
0.08588123144 -0.07849946652 -0.05748699046
-0.530910443 -0.458570036 0.1532108928
0.9026463536 -0.001760582147 0.09468378052
0.1880512856 0.05134728142 -0.08089755629
0.3089191286 -0.4831445805 -0.06919227338
-0.08740806863 -0.1248281551 -0.03627046748
-0.4376556565 -0.2465650742 -0.06480279229
0.09043938108 -0.132252869 -0.048707505
0.3795110782 -0.1272720676 -0.05748672883
0.4014761223 -0.1468326277 -0.08089755629
-0.477333267 -0.4150890182 0.01664763082
-0.0215954281 -0.4787774166 -0.0274915053
0.5019015821 -0.1311099549 -0.1043088198
-0.4328730879 -0.01729023709 -0.03602660742
0.6161825434 -0.1308709278 -0.1160141027
0.5632429077 -0.6588736165 0.1904555456
0.7244053912 -0.1313590113 -0.09260307177
0.7873486715 -0.1250184172 -0.02529676475
-0.2593178013 -0.1137632777 -0.009202000744
-0.2653504271 -0.1366319037 -0.02237044402
0.2726096345 -0.07104502519 -0.03797748791
0.287141351 0.2876387119 -0.08089755629
0.423479082 -0.1241897098 -0.06919227338
0.7442475795 -0.1165523726 -0.06919227338
-0.02440613442 -0.07089670405 -0.05358499693
-0.4343207303 -0.08006551874 -0.05358499693
0.7990972408 -0.302897336 -0.006763400137
-0.298552228 -0.1021721475 -0.01066516111
0.1481638206 0.7491835802 0.01274563729
-0.3183958989 0.4534319642 -0.1050404
0.03202802857 -0.07724887608 -0.0555359937
0.3864617731 -0.07711721235 -0.04109903623
-0.01866733405 0.8002190998 0.125898566
0.5019015821 -0.07796430337 -0.1043088198
-0.4897385156 0.1601588902 -0.006763400137
0.7497900941 -0.07845474297 -0.06041331119
-0.7209622733 -0.0883842136 0.118095044
-0.7197006605 -0.06902631614 0.07127321469
-0.6881854578 -0.0876400912 0.05956793178
0.5591991369 0.04521383066 -0.1030081553
0.6206848336 -0.01721007498 -0.1086983009
-0.6209364783 -0.07136170508 -0.006763400137
0.442505985 0.577586584 -0.1001281125
-0.1436898681 0.2735096527 -0.05748699046
-0.3053838563 -0.07133690121 -0.008714280622
0.1040398158 -0.7302258848 0.0829784976
-0.256866504 -0.07138888813 -0.003837079408
0.3293869302 -0.07252992976 -0.02875514379
-0.5261347569 0.6121956235 0.03615666825
0.7338996685 0.3395741423 -0.06138851887
0.8040441537 -0.07144087505 0.001040121806
-0.7428045225 -0.01743821448 0.05956775735
-0.5963418605 -0.01732104095 -0.02237044402
0.3276707758 -0.1877506414 -0.04317999091
-0.4901472432 -0.01729193772 -0.04431784949
-0.5453033059 0.5650424631 0.0197690396
-0.3825192195 -0.01730651284 -0.02627220499
-0.3203684226 -0.01733793769 -0.00773884038
0.4124470779 -0.8051872784 0.3053816638
-0.2573207492 -0.01734883377 -0.004812519651
-0.2214272722 -0.01733455847 -0.01066516111
-0.1960731517 -0.01732104095 -0.02237044402
0.2740340684 -0.01951023118 -0.02738699384
-0.7445730785 0.006624180974 0.2936763809
0.3363115744 -0.01647410366 -0.009364574118
0.385285012 -0.01372666176 -0.005202695748
0.4043300568 -0.03271599061 -0.02237044402
-0.2044172735 -0.6806463596 0.05956793178
0.4474586841 -0.01868411805 -0.04684544362
0.4998307091 -0.0172372337 -0.09494417487
0.2091151871 -0.5377750364 -0.05602374289
0.5617493062 -0.0172209714 -0.1057719802
-0.4359649478 0.1057614555 -0.003091154516
0.751637599 -0.01728048871 -0.05748699046
0.6151547218 0.3344910251 -0.117686286
-0.1457081782 -0.06988905201 -0.03587653969
0.7966237844 -0.02504706742 -0.01066516111
-0.3253263969 -0.7094666593 0.1766221563
-0.739528219 0.04511994082 0.06834671954
-0.6130124762 0.04441681943 -0.006275680015
0.4375003741 0.6929010576 -0.004812519651
0.2683141391 -0.2473162144 -0.04578100985
-0.4346948652 0.03656128297 -0.02237044402
-0.3769637829 0.04425875706 -0.02237044402
-0.4354329427 -0.3637296926 -0.0395381923
0.3415858822 0.0443655117 -0.01066516111
-0.200471707 0.04645803556 -0.02237044402
0.4426200836 0.3911576674 -0.1277193856
0.7503489504 -0.3798224812 -0.01066516111
0.02868756805 0.04206927032 -0.06919227338
0.3244697752 -0.8139146982 0.2468545515
0.08896139463 0.04372497773 -0.08089755629
0.2203722716 0.04138084777 -0.05878757745
-0.3180165909 -0.7022112302 0.129800327
-0.4632726712 -0.380542593 0.001040121806
-0.2214272722 0.02894049437 -0.01066516111
0.3119603951 0.04425875706 -0.02237044402
0.09347306012 -0.2474323458 -0.04285468912
0.4487612233 0.0436849058 -0.04208482505
0.3141993086 -0.7061559578 0.1239476855
0.4978443313 0.04193440029 -0.09260299425
-0.2006862305 0.3409948412 -0.08089755629
0.7886297908 0.1679474801 -0.09000189779
0.6233772074 0.04351146368 -0.1043088198
