# .PCD v0.7 - Point Cloud Data file format
VERSION 0.7
FIELDS x y z
SIZE 4 4 4
TYPE F F F
COUNT 1 1 1
WIDTH 629
HEIGHT 1
VIEWPOINT 0 0 0 1 0 0 0
POINTS 629
DATA ascii
0.0749793723 0.8376571106 0.02302983711
0.05411750773 0.8530368906 0.03489916436
-0.0002093590177 0.8531110294 0.0428685698
0.2456658774 0.8510589638 0.1552900259
0.1476320502 0.7843531994 0.02302983711
-0.05162156998 0.8031140944 0.04180723842
0.1736578019 0.804855217 0.05521311687
-0.1073862134 0.8015591523 0.04727730846
-0.1640524349 0.804028682 0.0585442748
0.1085251767 0.7988906297 0.02302983711
0.2971300937 0.8119116009 0.2037849686
-0.1965269254 0.7655232824 0.07813808487
0.1124307109 0.7478180368 0.0134778547
0.05623035347 0.7491034224 0.01437007284
0.1783233852 0.7478217069 0.04231761707
0.005934537449 0.7424690711 0.02082553348
-0.04126491236 0.7262034781 0.02302983711
-0.05252941715 0.7541441959 0.03405135527
-0.1063471724 0.7470999436 0.04293978233
-0.2822730826 0.7980672508 0.2214197371
-0.2926303586 0.7835977201 0.2544850032
0.2387325997 0.7503499817 0.09797721172
-0.07401934803 0.7146117028 0.03405135527
-0.1651261978 0.7490353215 0.06022811785
0.286607738 0.7509835945 0.1586810601
0.2402948391 0.7146396869 0.08915960303
-0.2396449789 0.7321509303 0.1552900259
-0.2546081786 0.7477980126 0.1697027804
0.1581027628 0.6888600293 0.01654659113
0.05792108431 0.6918838024 0.003191104417
-0.05062149129 0.6904167662 0.0184692089
0.2171701088 0.6920202877 0.05897005582
-0.2746194715 0.746451747 0.214936314
-0.1144689412 0.6974969837 0.03818442458
-0.2920340295 0.7507429306 0.2636696017
0.3162854713 0.6927066636 0.1704446134
-0.2360406969 0.693396617 0.1539121719
0.1109274897 0.6385640598 0.002456336539
0.05764156415 0.6381870054 0.000986800784
-0.2521102132 0.69108964 0.1883545804
-0.2736168332 0.6976117318 0.2277178022
-0.2193396627 0.7484823737 0.1133364298
0.1657551565 0.6367737895 0.01437007284
-0.0531637277 0.6395323072 0.009875121883
0.2203107482 0.638195272 0.04752239167
-0.1656768514 0.6397093183 0.05542685876
0.0008618394586 0.8039343146 0.03720036046
-0.2887718026 0.6906195421 0.2751503498
0.3209860655 0.6453603523 0.1516157485
0.313786535 0.6201814942 0.1332463326
-0.2396449789 0.6380154039 0.1552900259
-0.2521102132 0.6362912281 0.1883545804
0.1641761071 0.5832471022 0.008617082589
0.1133644706 0.5856162308 -0.001768742992
0.06001026 0.5819588745 -0.007117739734
0.003475329322 0.5828237567 -0.008198345137
-0.05347783589 0.5825388396 -0.006571262145
-0.26974483 0.639467371 0.2214197918
0.2618788728 0.5862205293 0.06491219738
0.2342797323 0.5854361297 0.04337735632
-0.111420595 0.5808979876 0.0073863284
-0.1429786614 0.5808291748 0.02302983711
-0.2861633133 0.6389350199 0.2695143462
-0.1855307229 -0.1946985688 -0.02105689248
0.28355875 -0.1780443922 0.03956211435
-0.1100404956 -0.1876414728 -0.06853485843
0.1659648508 -0.8409078467 -0.04983577548
-0.1632041094 -0.1879581398 -0.04880107652
0.2112142783 0.7487086672 0.06881218488
0.259032823 -0.1169674811 0.02302983711
0.1244000248 -0.8375026995 -0.03608623543
0.1591775579 -0.2613657396 -0.09019252699
-0.221473582 -0.6870936115 -0.01462767356
-0.2962084184 0.4393902526 0.1993760985
0.0432509737 0.8092816206 0.03405135527
0.3144283332 -0.2716518437 -0.02105689248
-0.1072702525 0.1973456012 -0.007463511565
0.1118927556 -0.2961995824 -0.1236430809
0.05822489181 -0.3121881576 -0.1422949062
0.01397239338 -0.3159561147 -0.1422949062
-0.2679415563 -0.6461119761 -0.02105689248
-0.2800459393 -0.1374765722 0.01127341968
-0.1583623085 0.03335237701 0.001310750543
0.1512022156 -0.3569326485 -0.1422949062
-0.009965489541 0.7670442727 0.03405135527
-0.1045178222 -0.3516087302 -0.1134005848
-0.2712451246 -0.366320019 -0.0871866584
0.3071736071 -0.3570951376 -0.06330670238
0.1624229959 -0.2033500836 -0.03680201228
-0.243766193 0.1431803647 0.1001817781
0.1509306168 -0.4042132644 -0.1422949062
0.3068581892 -0.4129521049 -0.06514362208
0.278509947 -0.407456114 -0.07616514024
-0.05081169499 -0.2032472303 -0.09063088283
-0.3075801241 0.1959727148 0.1773330622
0.2145740892 -0.3088170589 -0.09086049779
0.0573400072 -0.7616018032 -0.07616514024
0.1779899355 -0.4136043978 -0.1245646378
0.1218741418 -0.2256025743 -0.06881746146
-0.1009300431 -0.2117749039 -0.0871866584
-0.1048741472 -0.4097897913 -0.1257626289
0.2081759485 0.5784062697 0.02302983711
-0.2157562992 -0.4074612268 -0.09637125687
-0.270915679 -0.1880513758 -0.005259054646
0.280120458 -0.4602005548 -0.07524668039
0.2203273675 -0.2508941919 -0.05006126798
0.3102647709 -0.3028269733 -0.04530449522
0.1304162274 -0.4904486043 -0.131273388
-0.1124109737 0.4723884718 0.001675440375
0.3149965058 -0.2420567195 0.0009866912936
0.1694963251 -0.4662378457 -0.1223949428
0.1089020333 -0.4662311108 -0.1422949062
0.2555433834 -0.3924738077 -0.0871866584
0.05774494215 -0.4678827339 -0.1459687455
-0.04769864166 -0.4676163892 -0.1422949062
-0.05701905744 -0.2451520771 -0.1082282561
-0.309451412 -0.5688274661 -0.1257626289
0.2803735588 -0.3523614456 -0.07406580345
-0.1595009267 -0.4080467775 -0.1037192641
-0.04860860709 0.03271445809 -0.04346753173
-0.1048741472 -0.4664721828 -0.1257626289
-0.04138039581 -0.3632538924 -0.1422949062
0.2598585196 -0.03204338994 0.01813138459
0.167562604 -0.3004007205 -0.110925793
0.005502265159 -0.02406089384 -0.07157284101
0.2017027508 0.1938726347 0.02027445757
-0.04667684784 0.4688759138 -0.03575225003
-0.1437068543 -0.2450615441 -0.0871866584
-0.05254016867 -0.2986256166 -0.1221412729
-0.1595009267 -0.4649465515 -0.1037192641
0.2990688166 0.05311869689 0.08915960303
-0.2159072512 -0.4645651266 -0.09820817657
-0.2730034515 -0.464730623 -0.1006575488
-0.3096726313 0.1110518512 0.1442678508
-0.2997864355 0.1110518512 0.1442678508
0.1525979895 0.2559547994 -0.03483379019
0.0006433649016 -0.2429858246 -0.1121693356
-0.2595463682 0.524165393 0.1773330622
0.2815194748 -0.2343036004 -0.009346324141
0.2581294548 0.6334636362 0.07813808487
0.1304162274 -0.5093246198 -0.131273388
-0.03906783523 -0.5068659426 -0.1422949062
-0.05634886367 -0.7482855798 -0.06664655637
-0.1120178314 -0.8815238717 -0.01664828522
-0.1801478293 0.3617293423 0.04139903405
-0.3102764327 -0.2842891427 -0.03207841065
-0.1106179752 0.1426826296 -0.01692382317
-0.222606306 -0.3677465893 -0.0871866584
0.2439543311 0.8182502547 0.1442678508
0.299626123 -0.5076839805 -0.07396083661
0.009337107133 -0.5172519783 -0.1422949062
0.171451272 -0.1785892172 -0.01265942018
-0.1647505662 -0.1277882173 -0.01223957284
-0.2824466092 -0.2549373783 -0.03207841065
-0.0535376378 -0.5241557749 -0.131273388
-0.001249878507 -0.2897255571 -0.1278821516
0.2171820154 0.02920491092 0.005946319722
-0.006369980045 -0.5470766509 -0.131273388
-0.01108674582 -0.5329196393 -0.131273388
-0.3009538998 0.6948789542 0.2820387986
-0.1706757023 0.4735823088 0.05119630405
0.2753857635 -0.523759467 -0.08792142628
-0.2011873938 -0.6697385222 -0.03575225003
0.2852128013 -0.7217490377 -0.03758916973
-0.3006051555 0.6405932659 0.2875495577
-0.2678095618 -0.677786296 -0.01210182686
-0.2202278348 -0.1856184705 -0.007624211928
-0.1512033291 0.3063859487 0.01568215833
-0.1113326953 -0.2999956572 -0.09889716516
-0.1057509072 -0.5216340924 -0.1234934928
-0.1595009267 -0.5218463255 -0.1037192641
-0.2156825836 -0.5213625131 -0.09545279702
-0.1604923771 0.08646081734 0.00374197503
-0.2730645983 -0.521720388 -0.1015760817
0.3174750118 0.5434190713 0.1112032963
0.2704212002 -0.7376691497 -0.01427441977
0.1825238897 0.6986924725 0.0362556589
0.05764897664 -0.9601416474 0.0703163623
0.22424006 -0.5219117408 -0.1048214816
-0.07618190516 0.4217404428 -0.0173830531
0.2226080594 -0.6255868325 -0.09710611234
-0.1209256952 -0.6911776026 -0.06808269359
-0.07486700912 0.3104878573 -0.02013843264
-0.1197077111 -0.8480614702 -0.02105689248
0.3241221822 0.7512525762 0.2154079352
0.2780839319 -0.5782418805 -0.087834983
0.2023330101 -0.7901760601 -0.0345277099
0.2906313973 0.2441910301 0.09509456986
0.225627657 0.7990581366 0.1069168949
0.2555433834 -0.3591871675 -0.0871866584
-0.05292894406 -0.1748691173 -0.07152450101
-0.06768793512 -0.4904486043 -0.131273388
-0.15691622 -0.3584649089 -0.09424048258
0.2743302395 0.801716396 0.1663113564
0.06100070607 -0.4122680994 -0.1569904827
0.1973779348 -0.04234282325 -0.03207841065
0.1122115623 -0.8835494445 0.01200825325
0.2887186985 -0.07827932605 0.04433819315
0.3125791316 -0.5921936488 -0.0871866584
0.2811555204 -0.6488468976 -0.07616514024
0.05766343837 -0.7976123515 -0.05345389423
-0.1036584478 -0.573326479 -0.1254182065
0.15256488 -0.8776840795 -0.01003537432
0.2273715073 -0.7477494691 -0.01830151294
0.2035876489 -0.8297592275 -0.05412210391
0.3137021192 0.7230700465 0.1773330622
0.3169679856 0.1415010605 0.1307029054
0.2581499413 0.3325732731 0.01751907803
0.1173821372 -0.7498475882 -0.07065438116
0.15256488 -0.8680468052 -0.01003537432
0.1668667971 -0.7380486838 -0.05021092476
-0.2195996923 -0.2974964326 -0.05311998846
-0.1226119947 -0.07867369557 -0.01664828522
-0.1521392088 -0.6211423006 -0.09683059629
-0.3072001767 0.04094151194 0.105692373
0.001780184625 -0.7329992033 -0.09820829822
0.1814245155 -0.351110911 -0.1246604771
0.1066013275 -0.9447138215 0.0671165667
-0.2663622543 0.2513962613 0.1277355735
0.009970837675 -0.6195121609 -0.1422949062
0.147461252 -0.936311054 0.05609504854
-0.06590863525 0.2509797992 -0.01805102389
-0.002082011159 -0.64317273 -0.131273388
-0.240469261 0.5264690952 0.1442678508
-0.05422971346 -0.6823003286 -0.110390304
-0.1283503274 0.6412819491 0.03680673481
-0.200437948 0.5219466015 0.07813808487
-0.1764317751 -0.6368275059 -0.06853485843
-0.1374577367 -0.8776588837 -0.02105689248
-0.2230708732 -0.5918008323 -0.06514353448
-0.2935238298 0.2532476026 0.1644745696
-0.3045744397 -0.3582250989 -0.07616514024
-0.2770698365 -0.6211872069 -0.04103347627
0.1675404149 0.08704734557 -0.006528288745
-0.2360073584 -0.6540134284 -0.02105689248
-0.2338534091 0.3660359172 0.1016510511
-0.1713665712 -0.2996382814 -0.07008430263
-0.05266740604 -0.8440503955 -0.03703809382
0.2703771585 -0.2579787398 -0.03758923542
0.3142261178 0.5802480713 0.1211226626
0.2182823609 -0.7718481307 -0.02105689248
0.225561347 -0.6835631316 -0.05333461799
0.3199941157 0.08924472853 0.1171379599
-0.3021163807 0.7507429306 0.2636696017
-0.1767617813 -0.3361078855 -0.07396083661
-0.2682087469 -0.3455004214 -0.06721015673
0.2224154639 -0.1883736789 -0.0009137101532
0.3203601641 0.2507598137 0.1103552851
-0.1807616026 -0.6012039798 -0.07616514024
0.1039032059 -0.9127004841 0.04599166175
0.003439498746 0.2536159641 -0.06073494912
0.1675319541 -0.7969499387 -0.04558884944
-0.1112145964 -0.2458793472 -0.09484049046
0.0573400072 0.2516042493 -0.07616514024
0.1135372086 0.08449493852 -0.04050678499
-0.001141122271 0.4726704695 -0.04714148061
0.05343057162 -0.8296284658 -0.03207841065
-0.07180506004 0.1990283988 -0.017120636
-0.1634661378 -0.6801485464 -0.05509439759
-0.2651524644 -0.588228631 -0.05812968981
0.1808574242 0.03722449281 -0.01416836151
-0.240469261 0.472069218 0.1442678508
-0.03045648807 -0.8680468052 -0.01003537432
-0.03592936016 -0.580655103 -0.1422949062
-0.2288602243 0.4192788983 0.1129434323
0.3002036492 -0.5726182291 -0.07616514024
0.002210958346 -0.9608165513 0.06344267257
0.1706447442 -0.2353570133 -0.05832068365
0.1148705572 0.5311602304 -0.01354219115
-0.2174075223 0.5807743927 0.1122052525
-0.006976144715 -0.8368510421 -0.03575225003
0.05248476851 -0.8874386907 0.01751907803
-0.2445904752 -0.0007830134046 0.08915960303
0.1335325223 -0.706018399 -0.07616514024
0.008057337626 -0.8894382907 0.006787496089
0.05996942543 -0.212396329 -0.09269741748
0.1124502522 -0.6814677035 -0.1115680504
0.007128599121 -0.759928291 -0.07126668772
-0.049467102 -0.7962630143 -0.05136648714
0.1115858325 -0.1896643856 -0.04750879885
-0.2101589895 -0.5690546948 -0.09119448319
0.06111214253 -0.8502661503 -0.00664391056
0.05800520191 -0.2425067802 -0.1077605531
0.3156755852 0.3044600421 0.07152517397
-0.09297775662 -0.8494015315 -0.03402338444
0.2025112285 0.0900849894 0.02082553348
-0.04849882329 0.3635012095 -0.04248780473
-0.2062533285 -0.7210783719 -0.01003537432
0.1658201168 0.3634882707 -0.04652071711
-0.2399197396 0.5826456605 0.1516159675
-0.1045143967 -0.6272130415 -0.1134005848
-0.09051679159 -0.8776336879 -0.03207841065
-0.04560418198 -0.7254209975 -0.09033566359
0.1055159252 -0.7288541057 -0.09191016619
0.1704001742 -0.5209586459 -0.1249276654
0.2606150183 0.08535676026 0.07184007449
0.1103970283 -0.8553858303 -0.01061528134
0.2157645002 -0.724722963 -0.03286566194
0.05768954526 -0.995272001 0.07813808487
0.003194776109 -0.2026787187 -0.09086049779
-0.09333266486 0.6813797346 0.02302983711
-0.2351860715 -0.2355819289 -0.01664828522
0.0002662383905 0.5343680163 -0.01790788729
0.06577669977 0.7974368867 0.02302983711
-0.1807234243 -0.7045140151 -0.02105689248
-0.1475472658 -0.726050291 -0.03648708361
0.006097694376 -0.3548159281 -0.1450502857
0.2127665722 -0.6587669291 -0.0871866584
-0.2084766052 -0.1387801189 0.01200828245
0.2779137373 -0.6818929728 -0.05223243802
0.2796278562 -0.2978363238 -0.05127756567
-0.2767419475 0.579658716 0.2200420199
0.2652095856 0.7408552892 0.1269483222
0.05822489181 -0.5712352102 -0.1422949062
-0.04966685657 -0.07879866684 -0.05320355283
-0.2722047653 0.03642732878 0.1029370208
-0.2697359497 -0.2981077187 -0.04452237806
-0.2014157037 0.4720574018 0.07813808487
-0.1026289632 -0.676305502 -0.09715857073
0.001052501943 -0.6847164647 -0.1202518505
0.1628454584 -0.0240749565 -0.0415970841
0.05622181021 -0.6836422047 -0.1214764465
-0.1551404315 -0.7930379609 -0.01160987692
-0.243766193 0.1971817131 0.1001817781
0.06285507853 -0.91253742 0.04192393081
0.2251757926 -0.4646039183 -0.09894316342
0.1753307236 -0.6906846632 -0.06356902563
0.3128112195 -0.689798608 -0.05136656014
0.0580466537 0.309901979 -0.07065438116
-0.3031070153 -0.6241383689 -0.05412177544
-0.1686944494 0.5845243134 0.04915520917
0.1604638382 -0.6693538581 -0.0931984553
0.1113953676 0.253894164 -0.06422512573
-0.2179986874 -0.6289392025 -0.04744197788
-0.162769154 0.6958073164 0.06030904249
-0.1063030965 -0.7381006476 -0.0501139407
0.1894385692 0.3439743557 -0.02105689248
0.004789239078 -0.7950624839 -0.05946579067
-0.05243715525 -0.6313254551 -0.1301332309
-0.19141378 0.1447062649 0.02302983711
0.3068581892 -0.4622767138 -0.06514362208
0.05494797503 -0.6428050154 -0.131273388
0.06052522859 -0.3563650052 -0.1500748013
0.116527029 -0.6398154668 -0.1294364683
0.1053020178 -0.61519471 -0.1422949062
-0.2867544042 0.3678482692 0.1546008525
0.05752247233 0.5084255529 -0.03758916973
0.1694362693 -0.6254687577 -0.1134443843
-0.1803571458 0.3142590937 0.03894980779
0.2430592628 -0.6488468976 -0.07616514024
-0.04470479457 0.3076948461 -0.03916376617
0.06044028598 -0.6163952846 -0.1422949062
-0.08667110603 -0.7158297408 -0.0871866584
-0.271112728 0.08850942456 0.1196813872
0.2238964693 -0.3525548848 -0.1005701182
0.007723974844 -0.5733760949 -0.1422949062
0.2793082785 -0.6254802889 -0.0871866584
-0.03458429942 -0.61093333 -0.1422949062
0.1123747631 -0.3537575679 -0.1464279755
0.3125791316 -0.611214586 -0.0871866584
-0.1278431395 -0.1129357142 -0.02105689248
-0.03045648807 -0.8776840795 -0.01003537432
0.2521109762 0.8003595798 0.1332463326
0.221692367 -0.02311735651 -0.008067034918
0.0589779974 -0.7336836609 -0.09505926522
0.05876174984 0.4160195491 -0.06514362208
-0.1492544339 -0.8445580179 -0.01210190898
-0.306185147 0.4393902526 0.1993760985
-0.05053068422 -0.1324534725 -0.05412210391
-0.2118588116 -0.2466783614 -0.04047585167
0.005391590178 -0.4117819055 -0.1508671981
-0.2056746821 -0.2119612747 -0.03207841065
0.3068581892 -0.4956901586 -0.06514362208
0.1009210055 0.50405559 -0.03575225003
0.002023723999 0.08462995062 -0.05305544181
-0.2436288209 0.3055515671 0.1020186978
0.2251776033 -0.4076769715 -0.09894316342
-0.1450648483 -0.3055209517 -0.0871866584
-0.05853186038 -0.3438818955 -0.131273388
-0.05589602068 -0.5659526664 -0.131273388
0.221083763 -0.08144001465 -0.007374758683
0.1090681879 -0.3216080504 -0.1422949062
0.1672215098 -0.5727012504 -0.1289354902
0.05527397693 -0.2825624105 -0.1288241617
0.1100097304 -0.5712352102 -0.1422949062
-0.1429786614 0.4742213524 0.02302983711
0.3032715056 0.6501051797 0.1442678508
0.271584295 -0.1995313984 0.01515727721
0.2182036961 0.3121441357 0.004201246013
0.110901515 -0.2537429456 -0.09873319846
0.2242444222 -0.5740656948 -0.1048213765
-0.2141207792 0.6379205595 0.1169180359
-0.3109891301 -0.2425733464 -0.03970879352
0.001417278524 -0.9190690241 0.03588827497
0.232159869 -0.2912614297 -0.0682051549
0.006363079341 -0.4676607799 -0.1429072127
0.3144897458 -0.5678539373 -0.07616514024
-0.2727437857 -0.4075101464 -0.09698356344
-0.3057666372 0.4708050065 0.2059892722
0.05740289776 -0.1847241566 -0.06514359079
0.3206961679 0.04172182217 0.0970324914
0.002530301337 -0.1748579628 -0.06330670238
-0.3056127106 0.08415516331 0.1304909531
0.004562103553 0.6381870054 0.000986800784
0.1317509858 -0.1706506703 -0.02105689248
0.273796719 0.6859772159 0.1129433977
0.2232413849 -0.1330348044 0.01078368149
-0.1594345084 -0.5739699005 -0.1029844743
-0.3115648544 -0.1383410327 -0.0142743187
-0.2947072002 0.3079202039 0.1532858149
-0.160699268 -0.07807325806 0.001331058991
-0.09051679159 0.08487101533 -0.03207841065
-0.268055385 -0.2381189896 -0.0173830531
-0.1471451834 -0.1481024702 -0.03330302378
-0.1049186944 -0.136418256 -0.04601767933
0.003481159354 -0.1354856993 -0.05412210391
-0.2234229633 0.8034817222 0.10529863
0.1006727319 -0.1342421014 -0.03758916973
-0.196831847 0.8084978772 0.07446424548
0.006582839845 0.6906968301 0.006998537964
0.1237311149 -0.1319796618 -0.01948238989
-0.3065310055 -0.4650616158 -0.1055562933
0.1676538898 -0.1302661631 -0.005748936394
-0.243766193 0.0891790163 0.1001817781
-0.2594969152 -0.1211095592 0.04139914354
-0.2265913492 -0.1207690568 0.03772519466
0.2888065874 0.473735155 0.06081846248
-0.3155358983 -0.08430866062 0.01338600872
-0.2108005105 0.6930269289 0.1162900498
-0.07977015335 0.3632126744 -0.02105689248
-0.2949866002 -0.09967417723 0.01935599772
-0.2701436593 -0.07614031514 0.05412670914
0.3130640976 -0.07866603444 0.05609504854
0.05649906642 0.1956222647 -0.06247173889
-0.1198664834 -0.7987570965 -0.01811782097
-0.2174542037 -0.07763001155 0.04752236734
-0.1915692586 -0.07843833347 0.02119291742
-0.09560031057 -0.07631153612 -0.03483379019
0.00470800127 -0.07844321018 -0.06013384109
0.05692989752 -0.08091410709 -0.0591318849
-0.2661416432 0.4717388021 0.1768538658
0.1136693473 -0.07807557033 -0.04769259301
0.005004380258 0.5072559382 -0.03575225003
0.1618344928 -0.06878805007 -0.03820151279
-0.3073625482 -0.5179487062 -0.1180475662
0.179298943 -0.08624116388 -0.01921997279
0.1120194465 0.4172387756 -0.0596328265
-0.3065846724 -0.06626921946 0.03956211435
0.1611031023 0.3079219033 -0.04159714382
-0.2719095013 -0.02780155586 0.06869104584
-0.2168940001 -0.02408141543 0.05609478576
-0.3045744397 -0.596439688 -0.07616514024
0.314309172 -0.02400670749 0.06344272732
0.2602963624 -0.4748978691 -0.0871866584
0.2398449384 0.2933102734 0.03956219647
-0.1080834223 0.3617700189 -0.008895036044
-0.1225060331 -0.0255742915 -0.0155461334
0.2851559099 -0.01751611581 0.04920631228
0.1894385692 0.43054679 -0.02105689248
-0.0957714747 -0.02377917108 -0.03648701791
-0.04991061248 -0.02170377984 -0.05534660755
-0.310099301 -0.01953732729 0.06050352442
0.05772275984 -0.02430750325 -0.07322606873
0.1119344202 -0.02242273065 -0.06024516956
-0.2661409336 0.002157079884 0.08915960303
-0.3089688258 0.01229418894 0.07813808487
-0.09369593855 -0.7940208167 -0.03627711552
0.1648063746 0.4154452394 -0.04009411994
-0.294302491 0.01229418894 0.07813808487
-0.2439310495 0.0348529957 0.09797734311
-0.2165754749 0.03214244172 0.05924377218
0.2857674165 0.8419759092 0.1993760985
0.2773761285 0.02999390538 0.06050344558
0.2823295969 0.1427642624 0.1078487784
-0.19141378 0.03325263235 0.02302983711
-0.110052576 0.0338502325 -0.01681784704
0.232519417 -0.2259596294 -0.01790788729
-0.09211620673 0.02166413956 -0.03207841065
-0.3060418422 -0.4076110046 -0.09820817657
0.1580099797 0.02534632936 -0.03377402883
0.1097881505 0.3090745424 -0.06773692047
-0.07977015335 0.03135167632 -0.02105689248
0.0005666335442 0.1995044548 -0.05440460588
-0.08571854615 0.1256754541 -0.03207841065
0.004646487647 0.02964043704 -0.05657133017
-0.2129731979 0.2532875998 0.05483510861
-0.04489105599 0.4176820329 -0.04456963975
0.1729921633 0.4721275937 -0.0170490677
0.1973779348 -0.2151616228 -0.03207841065
0.1126756779 0.03096819471 -0.0548567842
0.006890834706 0.4171680138 -0.05993901628
-0.19141378 -0.01035965864 0.02302983711
0.112649418 0.4713720366 -0.0435083765
0.2422712252 0.04549389372 0.03956222384
0.1124910746 0.3617977703 -0.06479919963
-0.2176267749 0.08748812908 0.05913519551
0.2856888805 0.08868680088 0.09711995334
-0.19141378 0.08655654356 0.02302983711
0.1112291398 0.6922715245 0.004660640172
0.2310509945 0.08660388744 0.04636983178
-0.2111028992 -0.3471776606 -0.07326474072
-0.114407476 0.0902961184 -0.01815649297
-0.3086961058 0.1433123909 0.1596986332
0.2625612653 0.8447797845 0.1681484637
-0.2941956509 0.1423920366 0.154187677
-0.2672684959 0.1433633985 0.1241416002
-0.2590746743 0.80302196 0.160800639
-0.2191335548 0.1418847676 0.05333943438
0.2868196353 0.6384135789 0.1200204232
0.1053020178 -0.5217807729 -0.1422949062
0.2273291748 0.1434764725 0.05029400748
0.1138988258 -0.4115702826 -0.1481730492
0.1493954804 0.2072843317 -0.03207841065
0.2532406765 0.1345716392 0.07813808487
0.2716898 0.2575870534 0.07428055351
-0.2653100817 0.1992314854 0.127123267
0.2780792272 0.3051908581 0.05058402668
-0.1591713674 0.1416216958 0.004966629218
0.2797093038 -0.1364077774 0.04676879482
0.1634923793 0.1405979873 -0.005854571934
0.2009106807 0.1350146447 0.02302983711
-0.05214352401 0.143004356 -0.03815924825
0.2893349908 0.3552085955 0.04507320191
0.1894385692 -0.01674412051 -0.02105689248
-0.3053081409 -0.3734528704 -0.0871866584
-0.001096434027 0.1423302227 -0.04677398718
-0.2657912307 0.3074520586 0.1232267707
0.113223893 0.8534754136 0.03457618947
0.1973779348 -0.05194386767 -0.03207841065
0.1073941942 0.1453959401 -0.03970879352
0.007126994899 0.3094629426 -0.06028116827
0.09435341974 0.8376571106 0.02302983711
-0.159525846 -0.02320726369 0.0009865818033
0.1317509858 0.141972009 -0.02105689248
-0.2902568386 0.1940637208 0.1620723975
0.1523189027 0.74528853 0.02192768529
-0.07977015335 0.1515911684 -0.02105689248
-0.2921987864 0.4777397161 0.2035093321
-0.1429786614 0.5275252636 0.02302983711
-0.04952060283 0.08438361574 -0.04561932066
0.2328664679 0.2544139532 0.04701815638
0.2788114471 0.1968858437 0.1064796477
0.2607557191 -0.07627907715 0.01568215833
0.3161552949 0.2012428819 0.1277355735
0.227332877 0.196061793 0.05278833031
-0.19141378 0.1980101761 0.02302983711
-0.1578463428 0.1967721061 0.01094167803
0.1716442841 0.1966085655 -0.005722377843
-0.04608529326 0.1963343153 -0.03671904987
0.1356114616 0.8136510014 0.03405135527
0.1131277675 0.1988949695 -0.05167264043
0.005605386192 0.3620320492 -0.0597998557
0.05876174984 0.3635127073 -0.06514362208
-0.3076963722 0.2503254716 0.1754961425
0.09335989539 -0.9857142652 0.08915960303
0.05595528083 0.141797767 -0.04983570248
0.2532406765 0.2128292073 0.07813808487
-0.243766193 0.2511830616 0.1001817781
0.1493954804 0.4617120089 -0.03207841065
0.1317509858 0.1131145309 -0.02105689248
-0.1775407355 0.2582541501 0.03405135527
0.2933853098 0.7045050569 0.1442678508
-0.1518121242 0.2492818974 0.01624736439
0.1780603415 0.250529415 -0.006528288745
0.2076802426 0.254533047 0.01445754521
-0.105807787 0.2532584018 -0.003503715
-0.1477887406 0.3635269644 0.01401223134
-0.03944498667 0.2578504572 -0.03869140914
0.113191161 -0.796262708 -0.05106033386
-0.3086263569 0.3071290518 0.160800785
0.2231013489 0.4718632211 -0.003912016701
-0.214609213 0.3063931997 0.05913526347
-0.2726758801 -0.5593917325 -0.09637147585
0.1691012348 0.5274783515 -0.0005879082783
-0.1073764877 0.3066856036 -0.005094286008
-0.1699759129 -0.2423460893 -0.06183710093
0.1887730023 0.304225378 -0.01125984146
0.147461252 -0.9265650879 0.05609504854
-0.3079986172 0.3637090359 0.1707201513
0.05822489181 -0.5194257997 -0.1422949062
0.2866557914 0.4198577174 0.04701804045
-0.2636959635 0.3579955123 0.1304909531
0.06011240301 0.5372428149 -0.0173830531
-0.2096456904 0.3612111988 0.06247592748
-0.1669657248 -0.7428873212 -0.01597003795
0.2280938297 0.3610919303 -0.0096677933
0.2683295448 0.3660358621 0.01370393713
-0.3070570077 0.4115425275 0.1855992008
-0.2729392899 0.4179532805 0.1632709893
0.1973779348 0.3705020869 -0.03207841065
-0.203572381 0.418311194 0.0681185229
-0.1728146689 0.4225141965 0.04457213422
-0.1463072114 0.4115490595 0.01338600872
0.2263312379 0.4188938714 -0.01437718451
0.2603085955 0.420940723 0.000986800784
0.1973779348 0.4041057423 -0.03207841065
-0.05005249796 -0.4110970322 -0.1422949062
-0.222461051 0.4721000997 0.1139586758
0.05584635192 -0.1358876958 -0.05075421708
-0.3046506306 0.5247733207 0.2236240954
-0.2846947493 0.5328203029 0.2119725416
-0.3103852751 -0.1911962412 -0.03758933396
-0.06913120052 0.4781969977 -0.0173830531
0.05548184135 0.08378272136 -0.05350976085
0.2584583205 0.4786581823 0.01515732414
-0.101596175 0.636628203 0.01963860075
-0.2225558755 0.527043365 0.1136524496
0.05645239144 0.0313211888 -0.05923923735
0.2980489722 0.5352840276 0.0928336614
-0.1064883789 0.4185362971 -0.006234556325
-0.1698379711 0.5286339301 0.04837965736
0.2713347113 0.5264179284 0.0547980902
-0.3033951512 0.5644744201 0.2434628281
-0.1104641099 0.5267560508 0.002246177622
0.05559113429 0.4714077452 -0.05265237108
-0.05690496791 0.5292436339 -0.01193563607
-0.1230358409 -0.7622289713 -0.02105689248
0.1269436872 0.4978809055 -0.02105689248
-0.2172677058 0.1963621112 0.05058400791
0.2176549679 0.5259444345 0.01043381635
0.3145464364 0.01501383291 0.07446424548
0.2469490072 0.531178192 0.03845996254
-0.3022326288 0.5939874381 0.261832682
-0.03773609174 0.5049167088 -0.03207841065
-0.2921532953 0.5939874381 0.261832682
0.00763965571 -0.8568190732 -0.01370910422
-0.2521102132 0.58647449 0.1883545804
-0.1965269254 0.5845526561 0.07813808487
0.288941307 0.5847530074 0.09907942923
